   471

   0.1165999999085370   4.9292414216644067   5.6791706935213266   9.7061496755158672
   0.0371999999085370   5.5948211465691315   4.8205598374994532   9.6173181578235383
   0.0371999999085370   4.3899127361537591   5.9491555871121218   8.7982216359495506
   0.0371999999085370   0.2478627028619902   3.1118724624139289   5.6596749114117388
   0.1165999999085370  -0.4690320019006795   3.4763870415379787   6.3954056598401552
   0.0371999999085370  -0.7522064076644390   4.5104558504542762   6.1989012799936249
   0.0371999999085370  -0.1363025397783420   3.4910720752687583   7.4332818272697647
  -0.6496999995426849  -1.6606305232704492   2.7664051562711900   6.3573693705083771
   0.4214999999085369  -1.6383361979496558   2.1051167229166468   5.6618116280405504
   0.0371999999085370   1.7543710949290758   2.1723949314769864   9.6648650841874275
   0.1165999999085370   2.3817730530601917   2.1652735129156455  10.5561701377422157
  -0.6496999995426849   3.6465197235652966   2.7385907402983749  10.1091927783055286
   0.4214999999085369   4.2546525128844683   2.0933969263186469   9.7410896797547952
   0.0371999999085370   0.2248526703249529   6.6147461469745981   5.6427444234777697
   0.1165999999085370   0.5383012249770847   6.6405955173338107   6.6863867574747831
   0.0371999999085370   1.1354600044254841   7.5425985869675394   6.8201508760804588
   0.0371999999085370   1.2203150782206384   5.8244175933781834   6.9247367118363083
  -0.6496999995426849  -0.5517621286706675   6.5697631555552398   7.5905294114086654
   0.4214999999085369  -0.2271760886433117   6.3424066032110504   8.4649166135621581
   0.0371999999085370   0.8537766989604717  -0.1673137576644437   4.8039987532664066
   0.1165999999085370   1.3762152690968876  -0.8429254236136204   5.4812758498685881
   0.0371999999085370   1.2230468716043446  -1.8078324737781459   4.9979603932529173
   0.0371999999085370   0.8782985973848821  -0.8021662776497744   6.4500470140151069
  -0.6496999995426849   2.6919262860709510  -0.4968346883216416   5.5893587619518792
   0.4214999999085369   3.0242573482897641  -0.6181619118150085   4.6969262599609820
   0.0371999999085370  -1.0306077901806254  11.3371981440146854   1.3649502275892176
   0.1165999999085370  -0.8513843242049403  10.8292812531920539   0.4173189728610984
   0.0371999999085370  -1.7969053138358122  10.5820119192635627  -0.0653278286383508
  -0.6496999995426849   0.1150253780679155   9.7796787598535300   0.5699232477191550
   0.4214999999085369  -0.2362252445168810   9.1798870848106287  -0.0922496506928088
   0.0371999999085370   3.6327556997292545   8.7978137615574088   5.9074491084817398
   0.1165999999085370   4.0302146094941973   8.9238584157505603   6.9145462756029428
   0.0371999999085370   3.5084538352310757   8.3605141847692277   7.6881802345299928
  -0.6496999995426849   5.3169472227937113   8.3659119842082124   6.7503603881493719
   0.4214999999085369   5.1886989715424114   7.4691096778846573   6.4327152556638909
   0.0371999999085370   5.9546442722034234   6.7785961350748947   4.8392052339943668
   0.1165999999085370   5.4102979095712902   5.8362023850906004   4.7785335147952246
   0.0371999999085370   5.9625480478837991   4.9515205195746850   4.4615801087308462
   0.0371999999085370   4.5360099596139261   6.0333288661086018   4.1581610414246093
  -0.6496999995426849   4.9673046577425799   5.6190732602917732   6.0717116610316335
   0.4214999999085369   4.4817237253028637   4.7915128900257447   6.0407905750873967
   0.0371999999085370   1.4134472250263119  10.8275859308470448   3.5532013613997400
   0.0371999999085370   9.2044522794308570   0.7930648178474934  -2.5087112145620436
  -0.6496999995426849   9.8558596428137442   0.6668874155612161  -0.7392634243320323
   0.4214999999085369  10.0471807316018307  -0.0143569407421729  -0.0904933153404724
  -0.6496999995426849   6.8764217127381002  -1.1586644363100966  -6.0008419245938569
   0.4214999999085369   6.7067750992503514  -0.3149778287078390  -5.5753857275679053
   0.0371999999085370  -6.1774313931477041   6.4471529562587166  -3.0520931975674865
   0.1165999999085370  -5.2778868546610314   5.9166030100569493  -3.3642412255689353
   0.0371999999085370  -5.3542209085663828   4.8825431607576801  -3.0280823372745327
   0.0371999999085370  -4.3519213644417221   6.3577778255823629  -2.9953984393319248
  -0.6496999995426849  -5.2384743355875658   5.9673962114907484  -4.7420585743313346
   0.4214999999085369  -5.1722305305385854   6.9113305933666025  -4.9039240284604846
   0.0371999999085370   2.7335919178020540  -3.3470584866605648   6.0747951428778970
   0.1165999999085370   2.7948344952463722  -4.3539945251100578   6.4876377467238573
   0.0371999999085370   3.4130552260927467  -4.8137073990660921   5.7165559082386546
  -0.6496999995426849   1.6221189429840117  -5.1168551864835274   6.5428143794286990
   0.4214999999085369   0.9085741105924202  -4.7725178495772829   7.0849267200927466
   0.0371999999085370   5.7798411245299413   4.7962980218092790  -1.9044917700062909
   0.1165999999085370   5.0802138424760868   5.1768689379627792  -2.6486607320732349
   0.0371999999085370   4.3324741753915337   5.5583381779111685  -1.9533402776231081
   0.0371999999085370   4.7781670429105425   4.2873663111949005  -3.2015199207627774
  -0.6496999995426849   5.6697796131718361   6.2372602767019156  -3.4152199787174915
   0.4214999999085369   5.0018795744432385   6.5929324458548741  -4.0059893394149881
   0.0371999999085370   7.9228271023709462   7.7643227765758178  -0.5820016254325380
   0.1165999999085370   7.1093886865114726   8.3163839934562329  -1.0527949521444051
   0.0371999999085370   6.1887597416704310   7.7382128948983464  -0.9736482271154245
  -0.6496999995426849   5.2536149222071611   1.8084258806851499  -7.5479780659603817
   0.4214999999085369   5.7648854441613073   1.7097958331138141  -6.7414579471781755
   0.0371999999085370   0.3036187878178661   6.1806437398200700   0.2076327762796436
   0.1165999999085370   1.3106666494025616   6.3814808263705931  -0.1579071257043606
   0.0371999999085370   1.7403593607192447   5.4029746218940353  -0.3723594087768466
   0.0371999999085370   1.9201552473322026   6.8615619389060782   0.6076990712434650
  -0.6496999995426849   1.3754265943623221   7.1362455785675714  -1.3343937763104943
   0.4214999999085369   0.8648867638250817   6.6141418672044807  -1.9575765940188630
   0.0371999999085370  -1.3214125156073784   4.9774220233818944  -7.0318903946728666
   0.1165999999085370  -0.5493277525786557   5.0033337370937376  -7.8008598187546490
   0.0371999999085370  -0.0162109484128553   4.0681466179936221  -7.6296537282734249
   0.0371999999085370   0.1190640818675559   5.8551548388634993  -7.6753202034155095
   0.0371999999085370   2.9182023314759555   1.8312809764361080  -9.7146514392883745
   0.0371999999085370   9.6804693603953016   6.0871066466382473   2.4753572430293338
   0.1165999999085370   8.7617140425900075   6.4071120248608109   1.9838398681616891
   0.0371999999085370   8.2087158671262230   5.5426254895924263   1.6164757197274582
   0.0371999999085370   9.0804345474282613   7.0266293839494560   1.1455586017434567
  -0.6496999995426849   7.9520160181531949   7.1352722721963211   2.9241160943003623
   0.4214999999085369   7.1716990545606265   7.5363263863455341   2.5344224954779451
   0.0371999999085370  -0.7881534951783959   9.4722263941780955  -2.5643583080470402
   0.4214999999085369   1.2068009576935328   8.9405809130028384  -2.3366977996811320
   0.0371999999085370   7.9797573201328023   3.9155163310194121   5.8356666270863657
   0.1165999999085370   7.4254765080558762   3.6614942979783605   6.7391863442271474
   0.0371999999085370   6.5142227275755120   3.1743254117581863   6.3922237733903104
   0.0371999999085370   7.1045248229088251   4.5727225370130977   7.2439280491491171
  -0.6496999995426849   8.2222157349833473   2.8279088803737502   7.6068457278619359
   0.0371999999085370  -4.9432574530379068   7.6252346039497194   7.7889266508838428
   0.0371999999085370   2.2843960880187799   4.9890328384031024  -2.7958279664316943
   0.1165999999085370   1.6414592590072330   4.1359015022894141  -3.0123900991539112
   0.0371999999085370   2.0886241946034527   3.2147922908513364  -2.6386185842117866
   0.0371999999085370   1.2674525253360951   4.0106610202883672  -4.0285271672724470
  -0.6496999995426849   0.4971492923295368   4.2351946784994254  -2.1431362596508547
   0.4214999999085369  -0.1857208368051091   4.7583472239647628  -2.5692815486671376
   0.0371999999085370  -2.7803147450405268   5.9953182759585575  -4.3070125280912404
   0.1165999999085370  -2.0356261764119088   6.7278997744941353  -3.9957890471681647
   0.0371999999085370  -2.3940541915717537   7.5298460206220073  -3.3504119650326394
   0.0371999999085370  -1.6234367815772748   7.1766373536730308  -4.8995824243496369
  -0.6496999995426849  -0.8928165042762888   6.0939282281901068  -3.4936579462486406
   0.4214999999085369  -0.9935430895333455   5.2208037655127804  -3.8798030322345038
   0.0371999999085370   1.8320315781177483  -2.2242364804967414  -0.7334363817940804
   0.1165999999085370   2.4480908334673392  -2.4274533122944160   0.1425053476049439
   0.0371999999085370   3.4253332200275173  -2.7921847802658846  -0.1738425815275041
   0.0371999999085370   1.9431880144681257  -3.1320803034483489   0.8033180103022118
  -0.6496999995426849   2.6342849017174985  -1.2200995322835757   0.8080990960070750
   0.4214999999085369   3.3848035572131101  -1.3269454436699968   1.3970862372265873
   0.0371999999085370  -1.2978549285180587  -2.7950818924537719   8.8768422487040493
   0.1165999999085370  -0.8487573199735852  -3.4112974807867582   8.0979375849737973
   0.0371999999085370  -0.5477596391306235  -2.6838574656337570   7.3440597718170988
   0.0371999999085370  -1.5408798630718037  -4.0507425820081240   7.5500540682243749
   0.0371999999085370   4.1744700648443178   0.2979963680772219  -4.8490934217125776
   0.1165999999085370   4.1444166971267391   0.4212241757642509  -3.7664980629465172
   0.0371999999085370   4.9165257833169669  -0.2008997554566173  -3.3138288971597696
   0.0371999999085370   3.1626342522447599   0.0614734362622203  -3.4586181848526998
  -0.6496999995426849   4.2821917463738144   1.7854015102115877  -3.5109128605089843
   0.4214999999085369   4.2034570260403994   2.1020997075926595  -2.6080820857539306
  -0.6496999995426849   2.4294303131747648  -4.2087420061062648  -8.5753973731451349
   0.4214999999085369   3.0118617336017501  -3.7322854378852521  -7.9792741311051234
  -0.6496999995426849   2.4181394324539118  -7.7204516599710553   1.7670040016158781
   0.4214999999085369   1.5828149273277869  -8.0687021020684639   1.4467624293505501
   0.0371999999085370   5.4003132169052392  -4.7870028995660308  -2.7958815922489508
   0.0371999999085370  -2.4383555236280494  10.7460282047780602   3.6120820515530596
   0.0371999999085370  -3.5955393447064763  -8.0758969081429228  -4.6318383594222503
   0.1165999999085370  -2.5348954170196860  -8.1402456629095052  -4.3889494118399561
   0.0371999999085370  -2.1519384374859873  -7.1249015473717483  -4.4915178275518928
   0.0371999999085370  -2.2037479736005801  -8.8446319523735042  -5.1520262883049490
  -0.6496999995426849  -2.2557743178202889  -8.4707993992406667  -3.0110728088353826
   0.4214999999085369  -1.3656051888163807  -8.1370023277837173  -2.8777360429681695
   0.0371999999085370   7.7854356777523712  -0.2344417163668999   5.2975250662489346
   0.1165999999085370   8.3730890596640801  -1.1060490866501436   5.5857368352058545
   0.0371999999085370   6.2306165335594379   2.9300788322987512   0.1825716146685839
   0.1165999999085370   5.1819237774033873   3.2095876034891759   0.2836574695769035
   0.0371999999085370   4.9851991270884168   4.2206813745731333  -0.0728414721419793
   0.0371999999085370   4.9097358622594705   3.0087849047260535   1.3198487318963452
  -0.6496999995426849   4.5557594224250728   2.2279931105827302  -0.5736782081858983
   0.4214999999085369   4.9709682682957377   1.3904549740391663  -0.3552023386983781
   0.0371999999085370   3.0111311806608567  -7.9405832108145100  -0.5997658062328919
   0.1165999999085370   3.4884821383364750  -8.5577005225229517  -1.3609512549491860
   0.0371999999085370   2.8532075470040774  -8.3121977116232415  -2.2119827261758593
   0.1165999999085370   7.6599241289195135  -3.9410973509823872   0.8378337895735445
   0.0371999999085370   7.0090579930175849  -3.0902570367425071   0.6364903342733758
   0.0371999999085370   7.0670903640433673  -4.7897358749193870   1.1791107536286778
   0.0371999999085370  -5.4817033663775057   2.1867928087540935   0.8128310174707462
   0.1165999999085370  -6.2855309519064129   2.8758268030339735   1.0720595509409532
   0.0371999999085370  -7.2383443230565980   2.3494312667259174   1.1282289441642850
   0.0371999999085370  -6.3578916240551351   3.5441870267461169   0.2140627300738488
  -0.6496999995426849  -6.0764342576670112   3.5092459143714776   2.3007834722569713
   0.4214999999085369  -6.2148543023022071   2.9063192533674727   3.0348948295493190
  -0.6496999995426849   1.4259076565458229   6.4493990801491483   9.6849260842419351
   0.4214999999085369   2.2184957268837580   5.9974840002517755   9.9835519194097539
   0.0371999999085370  -7.4234130302904013  -0.9469945676535036   4.3000746534975178
   0.1165999999085370  -8.1219834113585172  -0.4686570547139022   3.6135629748915714
   0.0371999999085370  -8.6018412258332475   0.2080843415723317   4.3205704985348419
   0.0371999999085370  -8.7526378760176673  -1.2949313020370969   3.2854687576225383
  -0.6496999995426849  -7.4013119248021129   0.3136558170900942   2.6345643953006639
   0.4214999999085369  -8.0481800620845796   0.7015777031610514   2.0406971639101803
   0.0371999999085370  -3.6142178484516196   3.6876130750973273  -0.6030466972889478
   0.1165999999085370  -3.1056414679581397   3.1393017930195541  -1.3960179903625218
   0.0371999999085370  -2.0872050953254937   3.5033243174316153  -1.2604637265440766
   0.0371999999085370  -3.4363543140914845   3.4402017353873440  -2.3900954258854656
  -0.6496999995426849  -3.0580699569143910   1.6646412466350751  -1.2208247614704451
   0.4214999999085369  -2.2479856426550167   1.4762002914676029  -1.7002550639931000
   0.0371999999085370  -4.0732623155008536   6.3997620496377277   4.7307345299742209
   0.1165999999085370  -3.0710841461051266   6.6533164048719051   5.0763481532330914
   0.0371999999085370  -2.5752288470471756   7.3021928577345552   4.3544154199738472
   0.0371999999085370  -2.3681104112171427   5.8221780730237063   5.1322728040336969
  -0.6496999995426849  -2.9516650121981600   7.2984579297550614   6.2913886100051508
   0.4214999999085369  -2.0314932056559671   7.2090882243425671   6.5500336232617693
   0.0371999999085370  -3.2520035991399534  -0.0023493504888118   7.7949785813474239
   0.1165999999085370  -3.1226267203798339   0.6709067668743576   8.6423758253673260
   0.0371999999085370  -3.8458111211096480   1.4862843073486602   8.6261272192321332
   0.0371999999085370  -2.1704473747350685   1.1921076157610941   8.5433598222126239
  -0.6496999995426849  -3.1601504801144524  -0.0174580430773623   9.9364733656212270
   0.4214999999085369  -4.1161437884057426  -0.0106821282433597  10.0238292679002843
   0.0371999999085370   1.9944467374207304   7.4266911202275594  -4.6416623830299200
   0.1165999999085370   2.9617169778575634   7.6699306124314566  -4.2019768940111035
   0.0371999999085370   3.2057320305134174   7.1515939197950189  -3.2746777366739148
   0.0371999999085370  -0.2136740676041974   2.7884314066511053  10.6259961139682453
  -0.6496999995426849  -0.6353844458336817   4.6594204139775597   9.9959329514463882
   0.4214999999085369   0.2109214904576555   5.0775275414897303   9.8211395195102913
   0.0371999999085370  -5.3946435868599529   4.6419719284138479   6.5190275821031687
   0.1165999999085370  -5.0996240769197456   3.8138533700292094   5.8746012204053288
   0.0371999999085370  -4.5635695051307117   3.0912542834200005   6.4899028194239659
   0.0371999999085370  -4.3501120653385064   4.1871161345622561   5.1767346027137195
  -0.6496999995426849  -6.2705195978062322   3.2977469700288200   5.2340772594273988
   0.4214999999085369  -6.6410710721217363   4.0524736785729250   4.7707421107671344
   0.0371999999085370  -3.5329221985903168   9.1967263848138590   2.6980959965863454
   0.1165999999085370  -4.4781117957446135   9.6085034945503658   2.3443122277720709
   0.0371999999085370  -4.7531776836510629  10.5189354734541389   2.8768092334403828
   0.0371999999085370  -5.2387018564374586   8.8342493168151268   2.4449761634350504
  -0.6496999995426849  -4.3848923607386183  10.0986519645150761   1.0090950816151349
   0.4214999999085369  -4.1388869223931444   9.3572769455856477   0.4510230025263751
   0.0371999999085370   2.0541891423491792   3.6503060972396635   7.3943518515086151
   0.1165999999085370   3.0530464009264744   3.3212541907161315   7.1078038074219778
   0.0371999999085370   3.2748739106980107   2.2718214530320311   7.3016684125174702
   0.0371999999085370   3.8203650119458876   3.8791915240300097   7.6444959675685578
  -0.6496999995426849   3.4628788979623395   3.4812540521510038   5.7725464912463700
   0.4214999999085369   2.9584558531687777   2.8395488045400556   5.2672032688549040
   0.0371999999085370  -8.3911998196390130   0.6139357045475038  -1.2820776310145434
   0.1165999999085370  -9.4186383554473299   0.4502317049607566  -0.9570084439119939
   0.0371999999085370  -9.8112148831595398  -0.5638397399606686  -1.0321268482963597
  -0.6496999995426849  -9.4304173377023357   0.7856871749694968   0.4192764967745914
   0.4214999999085369 -10.1839679352562342   0.3551150179262659   0.8296055746287848
   0.4214999999085369  -6.8165112768754259   0.0612258449596655   8.8484143342923662
  -0.6496999995426849  -2.7183925812222731  10.0328446993642331   6.7522389698422751
   0.4214999999085369  -2.8744798456849785   9.0856332040190448   6.7574696887728942
   0.0371999999085370  -4.6730047258149385   3.5701376194971068   9.0007300210609511
   0.1165999999085370  -4.0403033285560896   3.9779646831384263   9.7890635603486214
   0.0371999999085370  -3.2270791079171111   3.3236731612425277  10.1031802175274361
  -0.6496999995426849  -3.5787252013946769   5.1946298957527119   9.2946688455065214
   0.4214999999085369  -2.7521580911126238   5.0333394029973455   8.8338301502922150
   0.0371999999085370  -1.5071456196923689   7.1300692250948448   0.4592718166461796
   0.1165999999085370  -2.4188989785120460   6.5752487687424290   0.2379651689831165
   0.0371999999085370  -2.6489594755470089   5.7342159874480547   0.8920569292053178
   0.0371999999085370  -2.3479587161149835   6.1171227661381220  -0.7485364048447817
  -0.6496999995426849  -3.4593023014616580   7.5115357302761501   0.2470691822646317
   0.4214999999085369  -4.3107480805171550   7.0684437160927143   0.2646681182360276
   0.0371999999085370   1.1318399555694556   6.9364189213085066   3.4168065216832626
   0.1165999999085370   1.1571727526418074   8.0230216551373168   3.4990131587291056
   0.0371999999085370   1.6488433395109272   8.1312019253071544   4.4657902110750038
   0.0371999999085370   0.1361590717444671   8.3661372118312691   3.6660544065382510
  -0.6496999995426849   1.8950677080800296   8.6770752848026937   2.4654638058599398
   0.4214999999085369   1.2649674840741645   9.0496292445518591   1.8443534210865939
   0.0371999999085370  -8.1901000698625221   7.4993557819154795   3.5129499338313153
   0.1165999999085370  -7.4135030072477734   7.3458342266308154   4.2622336840567527
   0.0371999999085370  -7.5210270956142162   7.9755680244316514   5.1453950028570015
   0.0371999999085370  -6.4163053493654374   7.6395972787421176   3.9345175140313913
  -0.6496999995426849  -7.2615610651224554   5.9789269259335764   4.6836672452165260
   0.4214999999085369  -7.9288459110316305   5.7685973286537129   5.3410047691043454
   0.0371999999085370   1.3068377738548114  -3.9829128298292438   4.0335202047662371
   0.1165999999085370   0.6811337036252940  -4.1765478305828481   3.1622568100186856
   0.0371999999085370   0.0749522633849897  -5.0793960286895565   3.0880277762697577
   0.0371999999085370   1.3191439730506593  -4.1039724640924931   2.2814756737002382
  -0.6496999995426849  -0.2463001349611215  -3.1171162049539078   3.1769327491122783
   0.4214999999085369  -0.9618031731603521  -3.2079100282823849   3.8105034923314598
   0.0371999999085370   4.4233302589449890  10.3987967784357842   3.2748241595962493
   0.1165999999085370   5.1827175725894286   9.6227409800193975   3.3706052737419010
   0.0371999999085370   5.3984761694277488   9.5082680989636117   4.4328881838560088
   0.0371999999085370   6.0687252272345260   9.8832366735932560   2.7916126747484635
  -0.6496999995426849   4.6812921796689180   8.3662680803788465   2.8330688744943013
   0.4214999999085369   3.7265188662265798   8.4397270714546977   2.7651549293401834
   0.0371999999085370  -4.5331283864165242   0.8711422125086292   4.2676850337944146
   0.1165999999085370  -4.2848054430618339  -0.0114577767112247   4.8571371927382501
   0.0371999999085370  -4.3647806507480915  -0.7455100887713967   4.0553447190947267
   0.0371999999085370  -4.9826255816909182  -0.1797554165657820   5.6773998208351495
  -0.6496999995426849  -2.9913811278055347   0.1305373110247806   5.3967449153127731
   0.4214999999085369  -2.9552193357245140  -0.5281615949656515   6.0941745376483789
   0.0371999999085370   8.0110839146728630   7.1491606861616654   5.9542315451036147
   0.4214999999085369   8.7118897232290315   8.0577135278638288   4.0939564985852606
   0.0371999999085370  -9.8011872269039930   3.5851210315480788   3.0383956238468488
   0.0371999999085370  -8.4926958374554307   3.1211436943090165  -2.0542027241724545
   0.1165999999085370  -9.1645037253678794   3.6301278491459650  -1.3630340121188300
   0.0371999999085370  -8.8111789393172408   3.5168400886304902  -0.3381301751461888
   0.0371999999085370  -5.1851706567287081  -6.6846844997157984   7.1721786847365241
   0.0371999999085370  -2.9384951779080746  -6.6841976483582410   6.3537680257578808
   0.1165999999085370  -2.0364370341431912  -6.7257556879425886   5.7433031455241812
   0.0371999999085370  -1.1547496212126453  -6.3900549933162347   6.2892265392432174
   0.0371999999085370  -2.3351137342660748  -6.1250080064975378   4.8842317973931566
  -0.6496999995426849  -1.6343221773841963  -7.9933260221917104   5.2661925661979865
   0.0371999999085370  -1.0043836161818838  -0.4290178076714857 -10.1686901853115828
   0.1165999999085370  -0.8024041965003766  -0.9460727562016159  -9.2306303476876188
   0.0371999999085370  -0.2208732549718636  -0.2625322409856066  -8.6120075783540670
   0.0371999999085370  -0.2362877550885049  -1.8553795209546313  -9.4325542022295181
  -0.6496999995426849  -1.9649224746009686  -1.3825299160404263  -8.5537352567399232
   0.4214999999085369  -2.4083924399560681  -0.5954318291009022  -8.2290642444538840
   0.0371999999085370  -3.2062283445394075   2.3066771726449384  -9.5267149731831857
   0.1165999999085370  -2.6271298388539850   2.0400077757760648  -8.6426152313436617
   0.0371999999085370  -2.4581158762282338   2.9089234639344759  -8.0065947218181144
   0.0371999999085370  -1.6612498771078874   1.5971183878218729  -8.8855663244080567
  -0.6496999995426849  -3.3315745635591618   1.0808535714696077  -7.8358239848668498
   0.4214999999085369  -4.1881642596018773   1.4588045301346795  -7.6236744839302881
   0.0371999999085370  -7.5066873453144956  -4.7891207474472024  -2.1904323167274837
   0.1165999999085370  -7.9942317536217855  -3.8363230700814288  -1.9840805751662165
   0.0371999999085370  -8.8422749269717702  -3.5533454999354990  -2.6076564064041987
   0.0371999999085370  -7.2136871886030427  -3.0798071361479740  -2.0649126465656975
  -0.6496999995426849  -8.2951810410315172  -3.8545824232113914  -0.5846332420395747
   0.4214999999085369  -7.4521686547516000  -3.6764210727526567  -0.1613263940119812
   0.0371999999085370  -5.0394580999252137  -6.4095302897945752  -5.1331443553102085
   0.1165999999085370  -5.0980581997465695  -6.2886861285297613  -6.2148387285288509
   0.0371999999085370  -4.3688971254273330  -5.5346725074183984  -6.5113034178375111
   0.0371999999085370  -6.0982665122822999  -6.1658665870040172  -6.6302894547944415
  -0.6496999995426849  -4.7319179951603116  -7.5434626062385277  -6.7477467818027961
   0.4214999999085369  -5.5274627914090102  -8.0798770371049855  -6.7166206598728460
   0.0371999999085370  -5.9981128923945697  -6.9899164782353136  -0.2666123781775430
   0.1165999999085370  -5.3571820842907298  -6.3801946685339503  -0.9034381110336462
   0.0371999999085370  -5.6699306432904066  -6.2564428184036389  -1.9402483025525106
   0.0371999999085370  -4.3344259621651844  -6.7571112865474419  -0.9014155887684603
  -0.6496999995426849  -5.3271465137400824  -5.0601533208726854  -0.3784154238470540
   0.4214999999085369  -4.9536843152878838  -4.5756545204199304  -1.1182715654482061
   0.1165999999085370   7.8536221965591828   2.5594981855404346  -4.9683796595864438
   0.0371999999085370   7.5215079206692543   3.4982084996969740  -4.5249576778301277
  -0.6496999995426849   6.7411520490327250   1.6515048740137106  -5.1220571959318990
   0.4214999999085369   6.0802321604435825   1.8600570245589001  -4.4577594046813616
   0.0371999999085370  -5.4460176353815832  -1.0329137285455738   1.6556451810539634
   0.1165999999085370  -5.5067182087723836  -1.9087447509156645   1.0096294025125379
   0.0371999999085370  -4.6457848703516085  -1.9314649277517333   0.3415146434437589
   0.0371999999085370  -6.3790679166536179  -1.8017094264797819   0.3649206104839850
  -0.6496999995426849  -5.5930341016417131  -3.1441021420085762   1.7468359001406215
   0.4214999999085369  -5.3875636784378038  -3.9187318882110276   1.2183181876509299
  -0.6496999995426849  -5.9383810641547008   2.2540131889640773  -8.4252668251563403
   0.0371999999085370  -5.4163866253513646  -0.6713804498638956  -2.3519393731620908
   0.1165999999085370  -6.1125388736708501  -0.1174736108587463  -2.9817482814075631
   0.0371999999085370  -5.5649570178297409   0.5367884020514362  -3.6601261350796448
   0.0371999999085370  -6.7988065079994868   0.4709513320940130  -2.3727389070919829
  -0.6496999995426849  -6.8631133825496384  -0.9157194664699725  -3.7932437337301455
   0.4214999999085369  -6.2980309579669012  -1.5370958933279808  -4.2581882008889043
   0.1165999999085370  -8.4997155774503135   1.5884991608354913   7.2703058364609037
   0.0371999999085370  -8.0512192399876685   2.1076261562021359   8.1173356420381833
   0.0371999999085370  -8.9909911392088731   2.2734398566349694   6.5792164311703063
  -0.6496999995426849  -7.4577337859719677   0.8846517385180244   6.5964981224324761
   0.4214999999085369  -6.9409053562498437   1.5272852252759959   6.1050604640059563
   0.0371999999085370   0.2419651548339255  -6.9315400481554788  -7.1440175472737950
   0.0371999999085370  -0.1525067243179666  -0.0181531555140572  -5.1574289152009065
   0.1165999999085370   0.2367060025511589   0.6701599339538179  -5.9076558800821921
   0.0371999999085370  -0.5950719680875066   0.8547361972465529  -6.5874918990159417
   0.0371999999085370   1.1042702843925287   0.2066759736077629  -6.3773541078334386
  -0.6496999995426849   0.5330934282616119   1.9439374647643153  -5.4165006623743919
   0.4214999999085369   1.3269367015476894   2.2415548602122328  -5.8668751786567181
   0.0371999999085370  -8.9267887073962147  -4.0608100039926978   2.1613448100671802
   0.1165999999085370  -8.4560777475386839  -5.0357245450217079   2.2881267556752389
   0.0371999999085370  -7.9055843560051970  -4.9999839835025242   3.2282223031383483
   0.0371999999085370  -7.6809099223639601  -5.2216406860636368   1.5447197014539984
  -0.6496999995426849  -9.1877201658791847  -6.2059960008877244   2.1634734497351920
   0.4214999999085369  -8.5716080513732678  -6.8445637747231407   1.7970891117621146
   0.0371999999085370   4.7224660039137198  -2.5796306404045741   4.7720838463677007
   0.1165999999085370   5.1940373239727968  -2.3742242263542344   3.8110798281579790
   0.0371999999085370   6.0823760254569699  -2.9920184897705804   3.6796208467881608
   0.0371999999085370   5.3710896435369797  -1.2987317919281918   3.8023980750190840
  -0.6496999995426849   4.2494944728750594  -2.6870506479978138   2.8471121585580543
   0.4214999999085369   4.2045380703511226  -3.6353678557452866   2.7047267054654180
   0.0371999999085370  -5.8086127348692820  -4.7075171857143063   5.7467669525425897
   0.1165999999085370  -5.3703177630830332  -3.7819999754125124   5.3733841073528312
   0.0371999999085370  -4.9086866866915280  -3.2403882712416658   6.1990072122672659
   0.0371999999085370  -6.1599332982454911  -3.0994873557416245   5.0590891235235960
  -0.6496999995426849  -4.3830473305483153  -3.9711632291332641   4.3156963511201987
   0.4214999999085369  -4.6942688006151476  -3.6565918017613739   3.4637654756635676
   0.0371999999085370  -2.2435071438283294  -5.0603037313801247  -2.7581516440334441
   0.1165999999085370  -3.0853848950666443  -4.9067907248126046  -3.4332577315148867
   0.0371999999085370  -3.6406661295012075  -5.8434051684227031  -3.4834188224583276
   0.0371999999085370  -2.7127183378447177  -4.5721465597825848  -4.4013664222217326
  -0.6496999995426849  -4.0887435416754183  -3.9823302518378685  -3.0283240147314756
   0.4214999999085369  -4.4137408778794320  -3.6096612065960776  -3.8511816230383622
   0.0371999999085370  -3.2348363751719464  -4.6447863461805170  -8.2022291466022228
   0.1165999999085370  -2.4721907041195066  -5.3997533342461361  -8.3932745389435119
   0.0371999999085370  -1.8862407682968376  -5.5737895896412102  -7.4907923754127843
   0.0371999999085370  -1.7615884011657181  -4.9198109072699010  -9.0661840056056633
   0.0371999999085370  -9.6999650253700107  -1.2210590601436035  -3.2883718920205975
   0.4214999999085369  -8.5144350696723752   0.0318805375268901  -4.3930836304049974
   0.0371999999085370   1.1638894395714647  -9.2337624099801303  -4.5289757827261887
   0.1165999999085370   0.8731552100197764  -8.2775201542467798  -4.0940276263187094
   0.0371999999085370  -0.0224349454073212  -7.9460312215323228  -4.6195121349140749
   0.0371999999085370   1.7164137764242133  -7.6063456882781102  -4.2569381124561225
  -0.6496999995426849   0.5401148383918951  -8.5010223907053355  -2.7204928542963773
   0.4214999999085369   0.3770028808072555  -9.4423356210813427  -2.6260202548004399
   0.0371999999085370  -3.8507983630827685   3.3404997998059636  -4.3919260462416290
   0.1165999999085370  -3.0421069384424531   3.2841435829163053  -5.1205827653000391
   0.0371999999085370  -3.1409369470921304   3.8911999090157434  -6.0204801187621912
   0.0371999999085370  -3.1675672651958648   2.3162216213477547  -5.6058553137123939
  -0.6496999995426849  -1.7663263904526874   3.4503122405990840  -4.5054673640782568
   0.4214999999085369  -1.1402291620735174   2.8088025549155531  -4.8490775021864083
   0.4214999999085369  -8.4573486503816415  -0.7653413691651186   6.4359326840205897
   0.0371999999085370  -2.9765878865972661  -2.0896162541831469  -6.4407476639643777
   0.1165999999085370  -3.5103983814030437  -1.7058645372953476  -5.5713299418045397
   0.0371999999085370  -3.6474067622106157  -0.6261861014042638  -5.6315279288587821
   0.0371999999085370  -2.7848059773764584  -1.8709192354647310  -4.7748548260594106
  -0.6496999995426849  -4.8102109840896521  -2.3122944349339947  -5.3844965514309759
   0.4214999999085369  -5.2912965281151276  -2.3387544091110413  -6.2148320340146022
   0.1165999999085370  -7.6634600011577447   3.1032451721519458  -4.6709565825629564
   0.0371999999085370  -6.9565797393215725   2.4597174713596131  -4.1472263096645587
   0.0371999999085370  -8.0528452354176832   3.8629390431576494  -3.9932070993921993
  -0.6496999995426849  -6.9463681856470290   3.7880037156755830  -5.6794261296287614
   0.4214999999085369  -6.5164726783154663   4.5746824737521097  -5.3360215804705993
   0.0371999999085370  -6.3268956366553057  -9.0548332971427090  -4.2808603131393275
   0.4214999999085369 -10.0282521038944594  -3.9959767424258006  -0.7966892133355937
   0.0371999999085370  -0.9632097265058719  -5.9208738519682633  -1.1272502832781730
   0.1165999999085370  -0.5012217078829146  -5.6596944966840184  -0.1751686143045249
   0.0371999999085370   0.1525177990770012  -6.5003233071189550   0.0573587360137538
   0.0371999999085370  -1.2102012972579588  -5.3999082023537186   0.6109350833218560
  -0.6496999995426849   0.3272612635590144  -4.5274147566725835  -0.3944805405131577
   0.4214999999085369   0.5367169981753842  -4.0664865504125141   0.4211624526121371
   0.0371999999085370  -7.4477317281468229   7.1190514791837813   1.2025510310856287
   0.1165999999085370  -7.0371054984159134   6.2962390996085933   0.6173456966884266
   0.0371999999085370  -6.9257361969532223   6.7127445274644906  -0.3837637415885259
   0.0371999999085370  -7.6984637831168445   5.4304683135830683   0.5834191087050498
  -0.6496999995426849  -5.8038159638890736   5.9590356202894750   1.1671121839468364
   0.4214999999085369  -5.9038718046775980   5.2726314062596185   1.8307676796352323
   0.0371999999085370   8.1816190820935013   2.1459446511551619   2.3169958314774837
   0.1165999999085370   7.8322481919943563   1.7382687264118901   3.2655937213834245
   0.0371999999085370   7.4588317788280749   2.5519505839282588   3.8873509239084711
   0.0371999999085370   8.5641654915094598   1.2164459578242373   3.8821094784161971
  -0.6496999995426849   6.8006964035154347   0.8705191886012498   2.9424379592529273
   0.4214999999085369   6.3759160045608390   0.6203628713643801   3.7661997173273960
   0.0371999999085370   3.6013495372278945  10.4743521154235779   0.8847220121602111
   0.1165999999085370   3.6745650122093325   9.8527004145051400  -0.0076325034487894
   0.0371999999085370   2.6859760834331938   9.9167825581876645  -0.4622605436184843
   0.0371999999085370   3.9697651112129768   8.8108786070295082   0.1171241533138101
   0.0371999999085370  -0.3306624906301682  -3.8285981095630901  -7.1659356750492318
   0.1165999999085370  -0.1161311401876443  -3.6365464776418519  -6.1146583255291924
   0.0371999999085370  -0.9289328258898457  -3.1826293758377138  -5.5477252842633353
   0.0371999999085370   0.7696179287849193  -3.0469311737699551  -5.8782214833815098
  -0.6496999995426849   0.2319041624248575  -4.9419266925467848  -5.6394292626688527
   0.4214999999085369   0.4582045063066643  -4.7956073027798061  -4.7180284095195049
   0.0371999999085370   6.4884602331571166  -0.1267753241163799   8.1634217656088293
   0.1165999999085370   5.8906640517615427   0.7038937673393082   7.7882762118242663
   0.0371999999085370   4.8669173106033234   0.3485830126550577   7.6708131525930039
   0.0371999999085370   6.2765164602638883   1.0686771355014617   6.8363565653534311
  -0.6496999995426849   5.9843843928367555   1.8376252425030657   8.6930957272336684
   0.4214999999085369   6.8217465675652953   2.2333573972702681   8.4404664507743785
   0.0371999999085370  -1.8593766427932659  -8.3239508635137280   0.5908184306631983
   0.1165999999085370  -1.8170146206139934  -8.4409669724389058   1.6736908583634154
   0.0371999999085370  -1.6586772869797428  -9.5093386070950388   1.8207120042038989
   0.0371999999085370  -2.7635751412108833  -8.0397351567525064   2.0358227756798835
  -0.6496999995426849  -0.7425679514884362  -7.7841188889242812   2.2911275716550188
   0.4214999999085369  -0.8458403506867114  -7.6353991683348266   3.2338986446584417
   0.0371999999085370  -7.6451056354323415  -9.6597461430620264  -0.6938918814434757
   0.0371999999085370   0.3445145075977736 -10.6476594155525355  -0.6878012142405957
  -0.6496999995426849  -0.2221685422696055 -11.1338188939898100  -2.5393449269805184
   0.4214999999085369  -2.7009062963463757  -9.4232386087008635   4.4112486331378449
   0.0371999999085370  -7.8339227304344279  -2.5442640541238339  -6.0544707614076891
  -0.6496999995426849  -6.2802441128682265  -3.4081192778445040  -7.2600719005137835
   0.4214999999085369  -6.4422648458186567  -4.2953264271085025  -7.5890292651739957
   0.0371999999085370   4.6776649432246273  -4.8682319594891972  -0.1873112564173970
   0.1165999999085370   4.0581876213569918  -5.6403186056992709   0.2690110622351068
   0.0371999999085370   4.5652998810857701  -6.5911815717456310   0.1053039756731149
   0.0371999999085370   3.0836878415869773  -5.6239872551861358  -0.2190298776183629
  -0.6496999995426849   4.0298346699521721  -5.3997578448747001   1.6753769076956455
   0.4214999999085369   3.6145836552626052  -6.1936802781074123   2.0201290211650571
   0.0371999999085370   2.7439079537274638  -5.3635551329085525  -4.0477672676877603
   0.1165999999085370   2.4899250975863136  -5.2842340665187422  -2.9907417765100273
   0.0371999999085370   2.9750243715010272  -4.4029555197284163  -2.5710671183477660
   0.0371999999085370   2.8081106259705835  -6.1186823242730810  -2.3657910927277674
  -0.6496999995426849   1.0843166249859648  -5.0048821826680063  -3.0713070599857271
   0.4214999999085369   0.7588611788905322  -4.7324177526883631  -2.2102366178647150
   0.0371999999085370   2.9685890491274156  -0.9866747807293161  -6.6821915436145236
   0.1165999999085370   3.2926822339723847  -2.0067091833437880  -6.4757968516634614
   0.0371999999085370   2.4557246519371732  -2.5810932561934341  -6.8728932240199301
   0.0371999999085370   3.5110520751584025  -2.1589094083924527  -5.4187965186375040
  -0.6496999995426849   4.3722095387756914  -2.4099434219032365  -7.1558130788260197
   0.4214999999085369   5.2143803014327252  -1.9931736048324067  -6.9592132245422960
   0.0371999999085370  -3.7769704878281418 -10.0874162940349876   0.0434127015221435
   0.1165999999085370  -4.4634571822596509 -10.4955701271444966  -0.6983732965848585
   0.0371999999085370  -5.4545735573144523 -10.6824656057760379  -0.2850178737191912
   0.0371999999085370  -4.1298671341220281 -11.4311488634636031  -1.1472728114837423
  -0.6496999995426849  -4.5787527486875979  -9.4898635218360781  -1.7625423541505798
   0.4214999999085369  -3.6683433577430740  -9.3703745108889915  -2.0426806280083811
   0.0371999999085370  -9.0942921895434186  -7.8424626950028369  -1.6136366660885517
   0.0371999999085370  -8.3151008956279355  -5.5675176954086814  -4.9602982967043143
   0.0371999999085370   3.7075452840518599   4.5942698695045729  -6.9671916662662721
   0.1165999999085370   3.0684290647302452   3.9685798007648829  -6.3441790986269053
   0.0371999999085370   2.3122410737662507   4.5778676625886723  -5.8491558415848175
   0.0371999999085370   3.6901849468814434   3.5779651155454952  -5.5386064745108605
  -0.6496999995426849   2.4712617912105284   2.9259678559172095  -7.1114932825008932
   0.4214999999085369   3.2170787029551051   2.3642884165673177  -7.3348171809970060
   0.0371999999085370   7.1001464000597316   0.6337585257698091  -0.7748589450137512
   0.1165999999085370   6.9426579573455429  -0.3622483094242395  -0.3610138354382075
   0.0371999999085370   7.7676474931831727  -0.5662595278779121   0.3215366958921352
   0.0371999999085370   6.8572786740226350  -0.9823315949375258  -1.2533743923221976
  -0.6496999995426849   5.7783950231623571  -0.2498754769989174   0.4342078723310758
   0.4214999999085369   5.9671501025530169   0.1811982858239164   1.2709557865349630
   0.0371999999085370  -5.4461813330877620  -9.2530992126209899   1.5697341677072767
   0.1165999999085370  -6.0420711423912019  -8.5708242165028850   2.1759635422795891
   0.0371999999085370  -5.4056599430624148  -7.6873953612058781   2.2272884512608817
   0.0371999999085370  -6.2797058650252184  -8.9061303333853417   3.1855170692087849
  -0.6496999995426849  -7.2948707340209333  -8.2604785345708720   1.6494228587617341
   0.4214999999085369  -7.8180938047749722  -9.0652711029384694   1.6373167348576976
